ply
format ascii 1.0
element vertex 1232
property float x
property float y
property float z
property uint8 red
property uint8 green
property uint8 blue
end_header
0.092327 0.244715 -0.654823 143 94 19
0.033445 -0.255485 -0.362129 72 23 12
-0.027117 0.140167 -0.668703 146 96 27
0.146747 -0.286258 -0.352117 45 0 0
0.046933 0.221009 -0.561957 137 89 6
0.147735 -0.280090 -0.351040 45 0 0
0.135986 0.223921 -0.468642 161 114 9
0.195406 -0.289288 -0.313169 127 73 12
-0.038390 0.122487 -0.445630 117 81 22
0.088546 -0.294519 -0.289492 141 86 20
-0.104375 -0.067310 -0.398743 144 96 33
0.086249 -0.307294 -0.292905 141 86 20
0.071739 0.201474 -0.307612 201 145 78
0.124112 -0.313291 -0.225782 70 7 0
0.018575 -0.295430 -0.185425 77 19 1
-0.121242 -0.035948 -0.354376 133 82 16
0.018713 -0.302207 -0.148237 89 24 6
-0.015617 -0.237156 -0.381563 125 89 48
-0.041470 -0.288260 -0.120367 169 110 49
0.095704 0.192253 -0.265635 180 123 59
-0.041339 -0.286833 -0.119940 169 110 49
-0.039137 -0.224247 -0.321036 97 56 6
0.018861 -0.305846 -0.104540 74 10 0
-0.121417 -0.095381 -0.286419 154 105 21
0.007380 -0.319664 -0.059680 66 12 5
0.007764 -0.318468 -0.059369 66 12 5
-0.118620 -0.091081 -0.266530 168 122 40
0.102658 -0.359706 0.012648 69 3 0
0.007324 0.133099 -0.125550 81 10 0
-0.011307 -0.337228 0.058434 93 30 13
0.030365 0.137662 -0.077024 124 67 12
-0.037465 -0.348882 0.146727 239 202 102
0.179234 -0.374135 0.196776 78 14 2
-0.066003 0.080320 -0.038074 162 118 35
0.019793 -0.378838 0.192508 145 80 21
-0.018971 0.102294 -0.005706 237 198 98
-0.027351 -0.358983 0.202601 80 10 0
0.126304 0.139343 0.032094 207 155 80
0.169629 -0.384270 0.235075 74 11 1
-0.131979 -0.195884 0.008188 143 95 11
0.016183 -0.398900 0.269470 87 26 1
0.012790 0.110079 0.097542 165 115 16
0.079884 -0.414610 0.273200 248 216 106
-0.102272 0.022287 0.087847 156 118 43
0.060838 -0.423940 0.333284 88 9 4
-0.102941 0.008171 0.147935 195 145 23
0.109141 -0.431725 0.379964 66 13 0
0.037722 0.096664 0.206916 170 111 0
0.161938 -0.430280 0.401281 119 40 0
0.016099 0.079556 0.240633 198 150 40
0.134044 -0.429949 0.409794 255 227 148
-0.151354 -0.096551 0.180124 167 116 18
0.030091 -0.437035 0.409457 249 211 162
0.056125 -0.443255 0.418578 125 48 0
-0.151816 -0.136690 0.194383 168 116 32
0.027322 -0.426366 0.498370 149 65 9
-0.151435 -0.171453 0.210116 161 113 10
0.024875 -0.432298 0.493863 149 65 9
0.009163 0.057366 0.291979 165 109 5
0.105706 -0.443393 0.501925 255 237 162
0.034302 0.071585 0.321804 204 142 76
0.150975 -0.433822 0.517445 249 217 146
-0.135816 -0.066895 0.301823 173 106 36
-0.001241 -0.410766 0.530311 255 237 156
0.074033 0.047597 0.405640 227 174 74
0.063452 -0.443203 0.552118 98 32 0
-0.064190 0.016759 0.379549 175 116 33
-0.010364 -0.454275 0.601681 255 230 145
-0.037957 0.014040 0.406412 175 127 18
0.798822 -0.074897 -1.919249 44 75 141
-0.091300 -0.019988 0.388418 155 82 10
0.798681 -0.074640 -1.919340 44 75 141
0.023255 0.025214 0.469287 184 131 12
0.299605 -0.132781 -0.994454 59 24 8
0.048707 0.011320 0.529444 223 157 41
0.191769 -0.202584 -0.904181 67 12 0
-0.137810 -0.142106 0.472141 95 25 1
0.228829 -0.205843 -0.889774 243 207 124
-0.081321 -0.069353 0.587836 146 53 0
0.226102 -0.208916 -0.872523 124 77 16
0.009053 -0.048562 0.654887 118 34 0
0.180128 -0.205029 -0.870245 75 8 0
-0.001887 -0.051915 0.654634 147 73 1
0.167380 -0.212696 -0.851405 253 226 148
-0.120572 -0.351301 0.592156 197 139 28
0.087215 -0.193886 -0.797123 69 9 0
-0.095461 -0.170779 0.745543 231 195 106
0.086428 -0.198188 -0.797497 69 9 0
-0.078188 -0.389542 0.753872 215 192 172
0.015245 -0.170737 -0.788301 232 194 88
-0.055875 -0.331987 0.792299 252 202 167
0.092586 -0.206211 -0.730297 66 11 0
0.011236 -0.144682 0.829765 214 176 88
0.082526 -0.205526 -0.711906 68 10 0
0.005187 -0.141155 0.827566 214 176 88
0.082447 -0.205369 -0.711934 68 10 0
-0.007864 -0.190346 0.837172 225 190 122
0.008144 -0.172568 -0.700566 224 189 93
-0.081329 -0.266919 0.817204 197 145 77
0.257866 -0.198863 -0.636740 249 217 120
-0.063515 -0.218578 0.839568 194 138 66
0.234234 -0.206084 -0.621734 130 77 9
-0.061199 -0.264098 0.839639 212 150 105
0.041721 -0.246586 -0.458746 86 20 0
-0.031673 -0.227760 0.864289 189 140 77
0.042461 -0.241157 -0.457771 86 20 0
0.015046 -0.196955 0.888571 255 231 189
0.144905 -0.273605 -0.391142 61 3 0
-0.001941 -0.207540 0.886014 185 143 87
0.100045 -0.282677 -0.370637 144 88 16
-0.001941 -0.207540 0.886014 185 143 87
0.100061 -0.282117 -0.370524 144 88 16
0.018275 -0.211702 0.902173 161 119 70
0.167167 -0.289369 -0.330398 206 169 77
0.024151 -0.227736 0.916851 252 212 160
0.173024 -0.304062 -0.284768 117 57 11
-0.077629 -0.285774 0.876342 255 232 182
0.271919 -0.331719 0.366692 255 224 111
0.032843 -0.292739 -0.238107 75 12 0
0.033175 -0.234839 0.935588 157 102 56
0.256366 -0.355832 0.383702 129 53 0
0.041219 -0.296092 -0.213175 255 234 137
0.033045 -0.240568 0.949563 186 142 113
0.287218 -0.175615 0.428430 103 26 0
0.039458 -0.301696 -0.164319 237 192 73
-0.017625 -0.271726 0.937371 199 154 121
0.211335 -0.012941 0.467216 152 67 6
-0.023361 -0.297889 -0.160904 127 66 2
0.164095 0.013404 0.481797 255 226 112
0.100744 -0.315930 -0.159408 251 212 94
0.290278 -0.176607 0.452081 246 204 85
0.101676 -0.315863 -0.158959 251 212 94
0.342962 0.532222 -1.216799 13 11 17
0.250603 -0.372754 0.462467 125 55 0
0.123473 -0.324825 -0.152186 86 20 1
0.272701 -0.112212 0.496422 98 28 1
0.109682 -0.325580 -0.137043 77 9 0
-0.089162 -0.007954 0.395597 167 120 13
0.261276 -0.087826 0.504079 255 222 103
0.115514 -0.328396 -0.108597 82 18 0
-0.138795 -0.070880 0.210272 246 200 115
0.264470 -0.101229 0.589011 255 222 119
-0.007767 -0.330771 -0.001737 90 25 0
-0.076185 0.825396 -1.843184 225 220 228
0.100431 -0.019204 0.635928 255 210 103
0.091583 -0.357765 0.027128 73 4 0
-0.290893 0.129040 -2.064709 180 207 226
0.018659 -0.014014 0.654526 29 19 17
0.095084 -0.366720 0.053661 78 10 0
0.276660 -0.148603 0.599314 255 218 95
-0.023998 -0.339758 0.086418 91 23 1
-0.204601 0.353559 -1.507409 93 122 142
0.174187 -0.164754 0.794391 255 238 134
0.064879 -0.363828 0.083835 249 216 115
-0.714371 0.436140 -1.923713 59 144 217
0.180318 -0.240971 0.867070 254 226 175
0.065698 -0.368712 0.083249 249 216 115
-0.714371 0.436140 -1.923713 59 144 217
0.181518 -0.284434 0.880543 253 223 173
0.082924 -0.371637 0.103099 70 11 1
-0.061992 0.750634 -1.832196 219 224 228
0.575104 0.777719 -1.804071 53 89 151
0.105844 -0.385544 0.177519 167 107 35
1.330434 0.840035 -1.370773 53 89 151
0.105892 -0.387771 0.176113 167 107 35
0.160441 0.077018 -1.300285 10 17 28
0.480931 -0.450778 -2.030489 54 74 126
0.058457 -0.390377 0.198701 87 23 6
0.089767 0.089890 0.212448 177 122 0
0.068711 0.822623 -1.831515 46 51 91
0.068234 -0.394859 0.216631 75 12 0
-0.120657 -0.091987 0.401565 254 216 135
0.056579 0.885339 -1.814371 199 200 209
0.045557 -0.389975 0.219547 255 224 115
-0.389397 -0.002779 -1.992169 226 223 224
-0.018963 0.928280 -1.821911 207 211 224
0.156979 -0.409436 0.350878 104 27 0
-0.218467 0.004526 -1.770371 156 161 170
-0.003010 0.795962 -1.836141 46 47 81
0.140582 -0.419497 0.364888 229 189 100
0.097050 0.619224 -1.578147 167 166 169
0.682245 -0.001263 -1.662569 29 47 84
0.077027 -0.429789 0.358541 241 196 96
0.126121 -0.185569 -0.872888 122 79 0
0.682245 -0.001263 -1.662569 29 47 84
0.022145 -0.433121 0.385261 132 60 2
-0.051537 -0.292729 0.896207 188 151 97
0.601734 0.269794 -1.245687 83 145 215
-0.026791 -0.414385 0.409307 255 226 137
0.411217 0.490645 -1.218826 81 142 207
0.057445 -0.437758 0.448712 255 232 160
0.398710 0.750886 -1.817121 137 164 180
0.409022 -0.018343 -0.973974 106 75 29
0.092994 -0.437732 0.454215 230 199 162
0.069658 0.633093 -1.654193 169 168 172
0.409022 -0.018343 -0.973974 106 75 29
0.023158 -0.428165 0.470427 254 222 120
0.241648 0.267842 -0.965056 54 19 0
0.349069 0.211277 -0.913482 120 88 37
0.055115 -0.442635 0.496622 255 236 164
-0.389224 0.046751 -1.996787 41 99 172
0.218037 0.283193 -0.914293 140 92 27
0.036731 -0.437236 0.508754 140 54 1
-0.390047 0.047342 -1.996170 41 99 172
0.429417 0.074792 -0.902395 83 34 0
0.038618 -0.434779 0.511088 140 54 1
-0.188471 0.385823 -1.553512 157 154 157
0.373143 -0.108460 -0.931596 185 146 67
-0.049736 -0.405496 0.521463 136 50 0
-0.146948 0.437864 -1.543334 161 157 158
0.068160 -0.475864 0.615807 241 214 190
-0.024804 0.027582 -1.007813 46 15 1
0.346348 0.213908 -0.828125 81 26 0
0.103840 -0.456965 0.691232 132 55 4
-0.137684 -0.284498 0.356793 253 223 131
0.228153 0.267956 -0.807903 78 30 0
0.105003 -0.453129 0.694447 132 55 4
-0.139872 -0.245414 0.469806 122 25 0
0.375755 -0.113216 -0.728672 97 26 0
0.079041 -0.456105 0.694519 255 237 212
-0.060679 -0.437243 -2.053084 216 209 209
0.151722 0.265224 -0.701603 195 161 81
0.039776 -0.455541 0.691194 254 236 206
0.157815 0.062096 -1.145493 14 14 18
0.172609 0.259100 -0.654284 210 173 91
-0.001674 -0.408565 0.768534 254 231 194
0.166700 0.058547 -1.147028 14 14 18
0.373818 -0.101262 -0.604231 244 212 124
0.037756 -0.422551 0.774113 228 202 171
0.023830 -0.393111 0.902678 254 227 187
-0.062235 0.105700 -0.835115 244 215 131
0.200418 0.216207 -0.422470 118 61 0
0.889915 -0.139542 -1.927606 224 226 242
-0.034304 0.135123 -0.793268 52 2 0
0.250542 0.197029 -0.397187 98 38 0
0.890763 -0.137022 -1.928210 224 226 242
-0.037256 0.136557 -0.792012 52 2 0
0.148972 0.211833 -0.395178 212 178 98
-0.048137 -0.197025 -1.827443 171 176 182
-0.101734 -0.023017 -0.529243 131 86 27
0.267093 0.183162 -0.385508 237 199 114
-0.098678 0.011490 -0.328276 68 7 0
0.327392 0.117623 -0.377988 75 9 0
0.423106 -0.275206 -1.666632 152 155 165
-0.139331 -0.066450 -0.232602 116 59 13
0.145325 -0.334952 -1.381609 123 172 233
0.325681 0.127591 -0.355308 72 8 1
0.213027 -0.330512 -1.379437 128 180 238
0.263991 0.177056 -0.337373 240 192 82
0.254177 0.082186 -1.164040 12 13 16
-0.142289 -0.209387 0.046761 116 60 8
0.321090 0.134062 -0.331812 203 150 59
0.162104 0.084623 -1.156497 52 55 63
-0.139098 -0.211062 0.047449 116 60 8
0.322812 0.134853 -0.332380 203 150 59
0.135345 -0.163925 -0.991665 150 111 54
-0.088948 -0.054928 0.479014 105 22 1
0.287316 -0.236269 -0.360661 121 74 0
0.288184 -0.180075 -0.922231 242 204 115
-0.149363 -0.276156 0.640175 208 117 6
0.369438 -0.082055 -0.330317 67 13 0
0.204004 -0.205274 -0.843217 77 3 0
-0.138860 -0.281874 0.691269 185 84 0
0.369438 -0.082055 -0.330317 67 13 0
0.202312 -0.210319 -0.843815 77 3 0
0.334789 -0.185425 -0.329771 77 17 0
0.096642 -0.203646 -0.775988 70 11 0
-0.166365 0.365940 -1.329561 36 48 79
0.342337 -0.172727 -0.314683 244 205 108
0.187289 -0.208193 -0.774426 67 4 0
-0.134596 0.244465 -1.301238 51 128 210
0.194535 -0.300360 -0.317014 32 15 0
0.200334 -0.209787 -0.751487 74 6 0
0.024348 0.186577 -0.992291 90 60 22
0.190951 -0.320418 -0.255596 31 16 3
0.058364 -0.226213 -0.636745 255 217 145
0.063469 0.250682 -0.732786 223 197 115
0.377655 -0.026121 -0.208453 237 195 88
0.193101 -0.223886 -0.617203 60 0 0
-0.035114 0.124510 -0.591665 51 8 0
0.360528 -0.128750 -0.199166 233 194 100
0.057488 -0.227353 -0.597765 232 192 92
-0.061885 0.095187 -0.569189 100 62 2
0.356609 -0.016280 -0.140500 73 5 0
0.212458 -0.234082 -0.592642 96 52 0
-0.037825 0.102088 -0.248066 243 204 84
0.251531 0.130267 -0.094967 241 204 107
0.111801 -0.249802 -0.561701 251 220 147
0.368733 -0.051037 -0.114273 95 35 0
0.111801 -0.249802 -0.561701 251 220 147
-0.110286 -0.013304 -0.162254 66 0 0
0.333429 -0.211800 -0.117183 242 204 101
0.202195 -0.322111 -0.106774 248 205 117
0.245439 -0.236352 -0.524413 122 70 0
-0.080596 0.010615 0.100378 255 239 169
0.363869 -0.040774 -0.079912 241 205 99
0.069223 -0.238813 -0.525881 69 16 0
0.172044 0.151179 -0.036412 99 37 0
0.277731 -0.217239 -0.516626 76 10 0
-0.141686 -0.117183 0.369014 255 238 161
0.350178 -0.127932 -0.065172 223 174 56
0.051368 -0.238917 -0.499930 72 10 0
-0.086505 -0.031022 0.417748 255 226 122
0.342016 -0.170857 -0.008952 243 195 83
0.344589 -0.170151 -0.009141 243 195 83
0.052825 -0.248867 -0.436768 78 17 0
-0.067922 -0.040170 0.539848 255 224 111
0.288707 0.046189 0.069660 252 206 107
0.036869 -0.249672 -0.413101 85 17 0
-0.077868 -0.057433 0.548504 138 44 0
0.217660 0.085264 0.105464 255 225 135
-0.024136 -0.226628 -0.340732 127 74 0
-0.124317 -0.133318 0.535551 255 235 133
0.286143 0.031984 0.104072 247 200 104
-0.001261 -0.301694 -0.167379 231 184 108
-0.134837 -0.307971 0.520910 154 77 1
0.278261 -0.290198 0.094294 111 46 1
0.039304 -0.310493 -0.125266 255 222 130
0.291314 -0.265519 0.095602 253 207 87
0.098470 -0.323933 -0.118999 255 224 134
-0.126808 -0.185312 0.677996 179 75 1
0.175390 -0.361898 0.103880 252 215 133
0.098312 -0.324600 -0.119403 255 224 134
-0.056196 -0.295519 0.854309 212 171 117
0.200314 0.094392 0.151754 255 224 138
0.222807 -0.315336 -0.053619 239 203 117
-0.018310 0.927782 -1.812122 220 225 237
0.204022 -0.341360 0.120994 115 48 0
-0.020891 -0.316113 -0.050447 249 201 114
0.589933 0.988069 -1.740039 210 211 213
0.218114 0.052795 0.221058 255 217 124
0.095177 -0.348566 -0.012510 69 4 0
0.115441 -0.311731 -1.381947 68 109 167
0.220001 0.053531 0.219436 255 217 124
0.133592 -0.361665 -0.011463 106 59 0
0.078969 0.251331 -0.995824 111 76 28
0.111775 0.074674 0.304850 255 215 100
0.083289 -0.361128 0.072025 73 6 0
0.073415 0.264710 -0.873781 204 164 65
0.213733 0.015651 0.344798 255 222 97
-0.040130 -0.343543 0.108979 243 205 125
-0.067243 0.017706 -0.864772 214 176 70
0.212869 0.015466 0.344955 255 222 97
0.081527 -0.380812 0.137453 77 11 0
-0.051463 -0.043532 -0.878013 80 27 0
0.253925 -0.350870 0.441083 253 217 113
-0.014406 -0.357520 0.146873 90 25 0
-0.050503 -0.057575 -0.853317 77 21 0
0.177784 0.005088 0.494120 178 126 0
0.054967 -0.393000 0.238886 68 7 0
-0.062984 -0.056923 -0.801466 70 11 0
0.133216 0.001934 0.560747 122 54 0
0.207113 -0.058883 0.554897 255 219 106
0.180899 -0.430431 0.447045 125 59 0
-0.085010 -0.054894 -0.551022 233 201 125
0.252977 -0.147103 0.619844 107 7 0
-0.076728 -0.393076 0.467078 253 219 144
0.204994 -0.075866 0.638453 255 231 127
0.178281 -0.432296 0.508843 254 219 179
-0.096127 -0.061227 -0.507947 240 202 127
0.285989 -0.233932 0.630951 113 20 0
0.092180 -0.437977 0.544543 223 192 158
-0.096127 -0.061227 -0.507947 240 202 127
0.034949 -0.055682 0.739840 31 13 5
0.029214 -0.445881 0.573977 253 216 148
0.041895 0.192506 -0.430729 85 22 0
0.154507 -0.436568 0.701862 202 166 127
0.066522 -0.451985 0.583733 114 45 0
-0.075798 0.090124 -0.328224 121 82 0
0.215438 -0.383458 0.699041 229 194 162
0.144454 -0.448962 0.588357 255 237 210
-0.050987 0.092935 -0.301782 67 11 0
0.203295 -0.385903 0.778009 231 201 176
-0.010752 -0.453756 0.627832 187 136 18
-0.117601 -0.111113 -0.261195 254 212 119
0.134863 -0.257058 0.909251 255 227 169
-0.010547 -0.453071 0.628633 187 136 18
-0.105555 0.008409 -0.222926 127 85 2
0.027286 -0.450163 0.711463 125 64 13
-0.128386 -0.106787 -0.211931 253 225 145
0.711556 -0.082945 -1.943552 154 190 209
0.088281 -0.446378 0.738487 129 69 24
0.025479 0.118597 0.042891 113 56 0
0.487428 0.693459 -1.815507 212 213 222
0.088377 -0.448001 0.737662 129 69 24
0.003677 0.100294 0.049341 97 34 0
0.450296 -0.525874 -2.030954 218 217 224
0.068548 -0.444451 0.744008 255 238 189
-0.121522 -0.220392 -0.001854 138 92 7
0.663271 -0.050071 -1.652153 32 43 80
-0.005677 -0.409786 0.789147 124 70 17
-0.089510 -0.002391 0.203191 88 10 0
0.546001 0.369544 -1.236264 106 166 230
0.041407 -0.417553 0.812211 248 216 189
-0.096441 -0.008506 0.224508 227 183 72
0.406621 0.506986 -1.222138 7 34 92
0.028637 -0.418825 0.825314 78 23 2
-0.144741 -0.220447 0.267320 95 19 0
0.371394 0.505700 -1.215716 75 132 200
-0.079632 -0.005534 0.327737 246 206 106
0.307290 0.255742 -0.943015 151 108 45
-0.030845 -0.253409 -1.412105 46 76 122
-0.133592 -0.346223 0.562965 147 68 0
0.057260 -0.298435 -1.376721 17 76 154
-0.123709 -0.186179 0.677708 177 72 0
0.272228 0.261401 -0.857802 79 38 0
-0.145047 -0.146419 -1.386225 14 45 86
-0.051540 -0.186501 0.785591 254 218 132
0.409745 -0.086743 -0.857754 138 90 0
0.379873 -0.293650 -1.359246 102 155 220
-0.064762 0.816194 -1.836846 67 82 120
0.267128 -0.197254 -0.855174 199 151 59
0.260151 0.054921 -1.149667 58 61 70
-0.041031 0.810548 -1.835447 227 230 247
0.318714 0.236317 -0.758984 243 205 129
0.149878 -0.174457 -1.003616 102 67 27
-0.009489 0.823357 -1.827802 57 80 120
0.422013 0.038485 -0.758591 224 172 71
0.076525 -0.181197 -0.908206 221 179 99
0.144444 0.083943 -1.125812 61 59 72
0.275800 -0.193075 -0.758363 211 171 72
0.287059 -0.178217 -0.906687 144 92 0
0.143159 0.257137 -0.996663 58 24 1
0.329739 -0.156147 -0.733741 215 170 81
0.113864 -0.197271 -0.876645 237 195 128
-0.047783 0.006289 -0.968378 92 62 14
0.262313 -0.201694 -0.734822 213 178 89
0.037554 -0.221856 -0.645476 136 87 0
0.135900 0.274641 -0.806363 74 26 0
0.406285 -0.000392 -0.623658 245 207 124
0.151593 -0.246002 -0.584112 125 75 0
-0.028630 0.139547 -0.834351 63 9 0
0.337606 0.152047 -0.571493 75 7 0
0.290452 -0.219634 -0.525486 251 203 124
0.014024 0.204466 -0.781294 138 99 0
0.272368 0.208729 -0.520683 236 195 115
0.176008 -0.259231 -0.483883 222 176 98
-0.023877 0.158853 -0.751525 216 177 86
0.272368 0.208729 -0.520683 236 195 115
0.010931 -0.243053 -0.434089 142 94 0
-0.076214 0.023020 -0.724006 251 210 139
0.205293 0.230860 -0.515741 101 46 0
0.175397 -0.275725 -0.429440 126 69 7
0.045096 0.210959 -0.609451 85 25 0
0.213590 0.220635 -0.470600 105 58 0
0.174476 -0.276557 -0.406061 134 76 0
0.271046 0.191268 -0.429504 238 204 130
0.173647 -0.279033 -0.406599 134 76 0
0.061642 0.218791 -0.496498 129 75 0
0.317362 0.159993 -0.420938 116 66 0
0.180151 -0.289149 -0.374575 242 212 138
-0.076427 -0.113459 -0.572032 231 195 113
0.322794 0.147321 -0.412955 236 190 113
0.213384 -0.280157 -0.359772 126 75 0
0.120144 0.204654 -0.387749 92 36 0
0.329430 -0.188382 -0.422230 243 197 90
0.108296 -0.294948 -0.321015 95 40 0
-0.095308 -0.112593 -0.415408 238 194 92
0.316450 0.156623 -0.372793 117 70 0
0.057519 -0.290697 -0.301454 122 66 0
-0.017253 0.148140 -0.286870 139 95 8
0.316450 0.156623 -0.372793 117 70 0
0.176581 -0.314748 -0.257564 103 47 0
-0.039844 0.125375 -0.288832 136 97 0
0.337140 -0.183724 -0.367129 86 27 0
0.057573 -0.314650 -0.205715 158 108 0
0.042860 0.149810 -0.103455 119 76 0
0.370406 0.023540 -0.277368 232 186 102
0.078152 -0.319850 -0.202862 162 109 0
-0.131090 -0.143483 -0.064234 82 11 0
0.329921 -0.188444 -0.287172 99 38 0
0.265456 -0.285803 -0.176352 255 223 146
-0.137237 -0.070674 -0.020488 253 214 126
0.243064 0.161578 -0.227604 94 33 0
0.148434 -0.337771 -0.122721 162 106 0
-0.136941 -0.070834 -0.020281 253 214 126
0.231894 -0.294772 -0.237409 232 191 95
0.186928 -0.331146 -0.114461 157 105 0
-0.132615 -0.208729 0.027185 255 225 146
0.247066 0.152995 -0.179148 255 216 121
0.086163 -0.325631 -0.109736 99 42 0
-0.132615 -0.208729 0.027185 255 225 146
0.366904 -0.145942 -0.179101 255 222 126
0.111852 -0.335900 -0.072954 74 10 0
0.060890 0.104785 0.195815 255 215 108
0.253753 0.139638 -0.139084 251 218 139
0.040214 -0.347803 -0.047109 124 80 0
-0.136981 -0.081307 0.127598 252 204 103
0.111242 0.165930 -0.133190 224 193 127
0.039971 -0.349170 -0.047916 124 80 0
0.014877 0.091494 0.198551 178 122 0
0.336261 -0.206036 -0.155701 245 202 110
0.111529 -0.343163 -0.030841 72 5 0
0.003948 0.079176 0.203951 254 209 112
0.317420 -0.232455 -0.129075 116 53 0
0.090680 -0.347508 -0.026119 242 201 133
0.081688 0.080778 0.275660 255 221 125
0.317420 -0.232455 -0.129075 116 53 0
-0.051729 -0.318365 0.023438 148 92 0
-0.124670 -0.042457 0.343681 169 122 1
0.204260 0.139717 -0.073327 254 203 113
0.048730 -0.377920 0.133386 159 109 0
-0.148894 -0.243033 0.388407 107 24 0
0.235585 0.122282 -0.052257 243 213 138
0.298579 0.072138 -0.046867 241 194 115
0.013160 -0.376551 0.176658 175 119 18
-0.123812 -0.339522 0.636586 179 112 0
0.181783 0.142453 -0.017555 247 203 100
-0.049084 -0.348074 0.200448 249 214 135
-0.087677 -0.204369 0.773340 255 238 139
0.349819 -0.047834 -0.040348 244 189 85
0.045233 -0.403304 0.255514 185 139 77
-0.023646 -0.403729 0.800974 230 199 161
0.236425 0.104341 -0.015483 255 213 98
0.134752 -0.415139 0.281090 147 99 1
0.236425 0.104341 -0.015483 255 213 98
0.110054 -0.418888 0.278796 105 47 0
0.297573 0.038702 -0.005083 84 1 0
-0.100146 -0.325768 0.337815 255 218 111
0.300705 0.039618 -0.006362 84 1 0
0.028797 -0.429942 0.358092 162 101 0
-0.378318 0.055208 -1.987984 218 221 231
0.206980 0.113337 0.010776 101 29 0
0.104749 -0.443965 0.435508 139 72 8
-0.540477 -0.172009 -2.008981 214 223 230
0.231363 0.105217 0.017283 253 207 124
0.104734 -0.443845 0.435570 139 72 8
-0.081295 -0.282873 -2.033277 120 129 141
0.129859 0.124903 0.062809 144 84 0
0.186902 -0.430061 0.496310 104 44 2
0.209355 0.100119 0.111038 86 14 0
0.085716 -0.454301 0.485433 255 231 195
0.195238 0.077857 0.229860 255 214 122
0.143578 -0.447580 0.562952 255 227 179
0.017419 0.492944 -1.244328 13 76 151
0.270041 0.006062 0.257130 155 103 4
0.058785 -0.455278 0.566255 255 227 200
0.187413 0.136750 -1.172781 13 12 17
0.191399 0.059818 0.273602 254 209 123
0.084271 -0.446314 0.579701 247 204 160
0.003444 0.206461 -0.875748 190 143 70
0.185664 0.053134 0.312120 255 212 120
-0.062351 -0.413596 0.593469 255 226 156
0.153257 0.152394 -0.021192 225 186 94
0.102953 0.061810 0.367422 255 226 131
0.058760 -0.474517 0.602108 95 43 0
0.251559 -0.365036 0.318879 255 218 125
0.128604 -0.445389 0.638050 249 220 199
-0.106198 -0.009995 0.180352 157 109 5
0.294967 -0.279842 0.395846 255 214 121
0.116026 -0.458314 0.678670 255 221 175
-0.112911 -0.288824 0.235842 252 207 98
0.212136 -0.009099 0.442241 210 168 32
0.104017 -0.422033 0.820696 104 60 21
-0.145030 -0.244576 0.284497 147 99 0
0.099409 0.027525 0.484351 255 207 116
0.070570 -0.433992 0.827902 128 83 51
-0.144345 -0.271061 0.629700 174 75 0
0.285655 -0.125279 0.472746 164 106 0
0.070493 -0.432701 0.828292 128 83 51
0.216562 -0.020582 0.505408 135 47 4
-0.059741 -0.287328 -2.031116 159 177 188
0.386052 0.806168 -1.943916 59 67 101
0.062154 0.001540 0.585372 243 205 112
0.199307 -0.399497 0.570240 156 90 0
-0.031287 -0.253099 -1.426133 0 25 59
0.170176 0.646186 -1.600935 171 176 196
0.163989 -0.033467 0.620431 143 85 0
0.121409 -0.328172 -1.401382 32 54 92
0.150577 0.641706 -1.592986 45 48 71
0.312614 -0.260916 0.601751 185 135 3
-0.096156 -0.201425 -1.382712 93 143 197
0.150577 0.641706 -1.592986 45 48 71
0.087951 -0.032950 0.687451 255 224 147
0.240435 -0.324164 -1.368082 61 132 205
-0.223278 -0.003543 -1.704707 164 174 199
0.149961 -0.051479 0.696165 199 155 28
0.624435 0.077548 -1.266711 19 57 122
0.144320 0.632300 -1.525610 28 34 63
0.178369 -0.137609 0.768131 186 114 0
0.630239 0.073689 -1.256409 112 123 156
-0.042484 -0.174902 -0.533068 112 66 0
0.184613 0.262641 -0.687518 121 72 0
0.107098 -0.290507 -0.327705 133 76 16
0.109369 0.651662 -1.645136 166 164 168
0.258551 0.229845 -0.643288 187 138 73
0.178362 -0.297494 -0.315510 147 93 37
0.266959 0.199593 -0.446901 221 170 106
0.110598 -0.306388 -0.295383 153 110 1
-0.167042 0.367579 -1.295785 22 43 94
0.228469 0.203700 -0.390476 147 97 6
0.077620 -0.307402 -0.288995 182 129 73
0.360005 0.550213 -1.260137 62 111 165
0.255356 0.184587 -0.361365 183 135 100
-0.073557 -0.212877 -0.263113 141 96 8
0.059270 0.153153 -1.072837 46 25 12
0.339673 -0.175751 -0.336848 200 151 108
0.256764 -0.283152 -0.227872 157 114 31
-0.025921 0.156034 -0.833186 200 167 69
0.299400 -0.229636 -0.330019 231 192 123
-0.087952 -0.220120 -0.179447 146 97 2
0.041347 0.232708 -0.793736 72 18 0
0.279517 -0.239142 -0.326299 101 57 1
0.036671 -0.304568 -0.154244 234 179 102
-0.061957 -0.030178 -0.694470 248 212 113
0.255656 0.168376 -0.247139 161 112 0
0.142279 -0.334512 -0.143908 167 122 3
-0.050491 0.092420 -0.607566 128 76 5
0.217999 -0.292209 -0.295876 188 157 111
0.227787 -0.314235 -0.065366 161 119 27
-0.102753 -0.245614 0.008334 92 34 0
0.021710 0.173326 -0.433923 234 207 131
0.303114 0.114321 -0.178782 156 105 7
0.151955 -0.368970 0.055386 148 83 21
-0.093565 0.012980 -0.468969 55 1 0
0.242629 0.147899 -0.156323 221 171 108
0.044861 -0.374582 0.095706 128 70 14
-0.107125 -0.048543 -0.439814 124 67 0
0.245059 0.137844 -0.119737 216 168 111
0.091644 -0.382223 0.149467 173 125 17
-0.048243 -0.187011 -0.456918 94 35 3
0.357177 -0.183366 -0.135103 211 155 100
0.148661 -0.399444 0.251308 252 202 146
0.031826 0.179349 -0.351417 89 29 0
0.362284 -0.152860 -0.130673 169 118 13
0.210218 -0.379353 0.267961 131 70 26
0.003162 0.161900 -0.344980 240 198 79
0.193037 -0.328838 -0.087037 204 170 121
0.113343 -0.426408 0.330980 163 104 47
-0.040669 -0.226035 -0.313227 87 36 0
0.294130 0.080940 -0.045342 163 117 25
0.009913 -0.429910 0.360851 149 92 12
0.225909 0.121998 -0.036052 231 185 115
0.119634 -0.436305 0.368721 213 167 143
-0.126405 -0.056867 0.008606 67 6 0
0.359839 -0.125847 -0.034946 168 117 21
0.093045 -0.448038 0.381397 95 54 16
-0.135430 -0.075583 0.073360 248 214 97
0.338349 -0.190882 -0.012888 159 101 0
0.081935 -0.443863 0.385259 123 74 23
-0.000492 0.083770 0.164101 116 52 9
0.220000 0.105459 0.033291 191 133 78
0.073051 -0.442965 0.387610 117 62 7
-0.139076 -0.083891 0.175133 85 16 0
0.344058 -0.060955 0.013121 165 119 7
0.105577 -0.448261 0.388848 247 224 204
-0.102939 -0.035596 0.372649 104 21 0
0.333676 -0.175492 0.003911 90 21 0
-0.087771 -0.386906 0.726815 255 226 189
0.335899 -0.022341 0.022159 216 176 53
-0.123739 -0.343654 0.507696 194 128 20
-0.059014 -0.153120 0.775673 202 99 0
0.342126 -0.150966 0.015770 81 19 0
0.015166 -0.430584 0.469491 220 175 59
0.287632 -0.250272 0.091538 169 121 0
0.068697 -0.449074 0.500547 177 134 74
0.005690 0.889197 -1.820012 57 84 143
0.317316 -0.199706 0.093471 93 27 0
0.215761 0.079849 0.129628 103 41 0
-0.020223 -0.400338 0.547513 109 47 0
-0.376686 -0.048161 -2.002873 222 222 234
0.260357 -0.325837 0.193093 213 164 70
0.045041 -0.446077 0.553444 144 83 28
0.216626 0.051937 0.231746 225 169 106
0.049164 -0.453765 0.557094 94 43 0
0.059492 0.622687 -1.621009 166 165 169
0.260419 0.036228 0.226706 227 172 87
0.186985 -0.426449 0.586479 254 213 176
0.070023 0.525886 -1.255724 22 45 94
0.223316 -0.384751 0.666683 116 70 31
0.283577 -0.295055 0.210116 240 191 111
0.164397 -0.439486 0.617161 255 226 199
0.186286 0.006437 -1.143090 15 17 24
0.243873 -0.339047 0.221301 152 105 10
0.151561 -0.445495 0.615448 250 216 188
0.012961 0.076165 -1.033698 42 12 0
0.321905 -0.136019 0.269941 169 126 22
0.160958 -0.436865 0.645906 144 118 98
-0.030296 0.057665 -0.985311 116 78 41
0.272931 -0.043220 0.324522 102 27 0
0.024679 -0.451395 0.671864 199 123 69
-0.052669 -0.015527 -0.921432 211 178 106
0.097239 0.045540 0.406730 255 215 132
0.075498 -0.448869 0.715872 255 234 200
-0.062708 0.033067 -0.880562 66 13 0
0.161420 0.034278 0.407217 246 196 121
0.088148 -0.444574 0.749838 246 208 167
-0.080436 0.006592 -0.735620 134 86 0
-0.004277 -0.406757 0.842433 222 178 150
0.240223 -0.017234 0.415396 185 127 5
-0.008705 -0.408309 0.778884 255 226 187
-0.083191 -0.045294 -0.598545 231 193 97
0.306322 -0.223982 0.395647 183 134 20
0.007739 -0.411669 0.787173 100 53 4
0.036073 0.197550 -0.474190 97 33 0
0.293747 -0.242824 0.411981 222 179 59
0.007774 -0.414138 0.784390 100 53 4
0.053385 0.202348 -0.445312 239 187 102
0.237986 -0.030255 0.440955 167 122 1
-0.020585 -0.403954 0.790152 164 117 58
-0.056971 0.098259 -0.379469 178 128 42
0.272230 -0.344046 0.465135 120 62 0
0.020175 -0.419110 0.788415 171 135 97
0.092476 0.170077 -0.181394 132 75 0
0.238145 -0.381025 0.480425 166 110 19
0.021475 -0.416789 0.798528 255 232 199
0.003065 0.134452 -0.194300 249 204 100
0.238145 -0.381025 0.480425 166 110 19
0.101281 -0.428179 0.798022 119 80 38
0.030562 0.159489 -0.185675 242 199 120
0.285701 -0.309273 0.487505 160 112 14
0.121255 -0.410410 0.814463 74 30 8
-0.108484 -0.125744 -0.226606 68 7 0
0.271459 -0.105767 0.521331 108 32 0
0.026625 -0.422278 0.814020 80 33 1
-0.019026 -0.266592 -0.233904 99 47 0
0.139544 -0.021244 0.568919 255 228 128
0.000728 -0.418146 0.825903 142 97 69
-0.073214 0.062138 -0.110418 82 15 0
0.241760 -0.395738 0.532879 86 19 0
0.000814 -0.417649 0.826352 142 97 69
-0.062246 0.063852 -0.085106 84 18 0
0.162807 -0.035675 0.582564 164 88 14
0.046859 -0.425514 0.832350 218 173 150
-0.063291 0.067112 -0.062931 215 175 85
0.257109 -0.092887 0.620332 181 141 35
0.062346 -0.430639 0.839117 237 195 167
0.182701 -0.416639 0.639881 220 188 162
-0.020995 -0.396782 0.870367 99 54 17
0.025603 0.118360 0.042791 114 57 0
0.174670 -0.423656 0.648147 74 36 10
0.100657 -0.427679 0.856345 232 197 163
0.006078 -0.321011 0.007768 105 40 0
0.202498 -0.086882 0.661313 159 71 0
0.100493 -0.427255 0.856887 232 197 163
-0.099304 -0.259838 0.008995 81 17 0
0.247102 -0.165418 0.668739 123 34 0
0.094810 -0.426894 0.884498 221 193 169
-0.131221 -0.060941 0.052162 77 5 0
0.272589 -0.323623 0.700989 218 188 72
0.034731 -0.270643 -2.028089 179 208 227
0.057476 0.111346 0.131160 97 34 0
0.634573 0.126946 -1.269508 54 111 179
0.147638 -0.423954 0.772700 228 200 173
0.082987 -0.231089 -2.023624 181 209 224
-0.148654 -0.210999 0.165338 250 206 109
0.176534 -0.179847 0.812551 232 194 138
-0.117295 -0.179711 -1.403648 37 59 92
-0.080380 0.013989 0.252679 248 205 100
0.133082 -0.407296 0.829225 58 15 2
-0.119477 -0.180571 -1.381968 91 135 184
-0.099461 -0.017499 0.253603 255 222 140
0.322864 -0.193123 -0.887094 208 166 137
0.189182 -0.278274 0.862616 167 139 101
-0.194689 0.076907 -1.331133 60 119 194
-0.021365 0.023595 0.375614 255 220 117
0.166403 -0.276891 0.888039 212 170 107
0.330570 -0.164918 -1.006792 205 186 171
-0.039074 0.012484 0.416900 255 233 126
0.157442 -0.305161 0.900853 82 20 0
0.323447 -0.200287 -0.903003 230 191 163
-0.009873 -0.165667 -0.708719 120 76 0
0.160257 -0.341188 0.910989 255 222 177
0.134943 -0.209469 -0.818645 201 163 75
-0.099336 -0.050356 0.410442 116 31 0
0.145311 -0.353391 0.918554 90 47 3
0.146377 -0.215957 -0.817475 197 163 69
-0.138801 -0.257871 0.378090 255 227 140
0.124102 -0.262047 0.932424 255 221 185
0.240280 -0.206341 -0.703409 168 114 13
-0.125128 -0.340211 0.656478 255 241 138
0.093131 -0.271417 0.956057 42 7 0
0.173148 -0.277088 -0.423484 97 49 2
-0.038743 -0.138609 0.778933 255 224 144
-0.025837 -0.226972 -0.381962 145 87 5
-0.239080 0.694521 -1.861086 151 168 177
0.053145 -0.267559 -0.371808 158 105 1
-0.020557 0.828319 -1.834981 224 233 251
0.306726 0.113867 -0.149983 151 112 31
0.102073 -0.444471 0.457430 183 144 103
0.020633 0.100814 0.160725 255 212 126
0.233528 0.155306 -0.144787 128 75 17
0.372072 -0.033747 -0.140626 173 131 34
0.381914 -0.068927 -0.130739 139 88 18
0.098334 -0.433089 0.557143 84 19 0
-0.011217 0.081080 0.213109 156 95 0
0.373360 -0.047065 -0.127829 229 187 99
0.041047 -0.453726 0.560303 148 102 48
-0.005827 0.066850 0.249552 122 46 0
0.372697 -0.047022 -0.127918 229 187 99
0.134591 -0.446888 0.631294 221 194 175
-0.150467 -0.097947 0.199428 254 220 137
0.358103 -0.038704 -0.105507 140 87 2
0.135050 -0.452959 0.634188 171 149 128
0.009752 0.065003 0.298883 255 216 110
0.365566 -0.166480 -0.113658 158 110 12
0.143902 -0.450432 0.659208 94 46 19
-0.080294 -0.359648 0.293037 145 90 0
0.323686 0.051492 -0.061028 80 12 0
0.144406 -0.454154 0.670435 176 136 103
-0.080596 -0.386345 0.411471 254 216 105
0.234844 -0.126315 0.734618 45 15 0
0.184780 0.137713 0.001914 231 173 85
-0.002149 -0.446936 0.707185 255 234 198
-0.066702 -0.417156 0.722590 38 11 0
0.265882 0.098923 0.003069 164 101 32
0.055539 -0.464153 0.703936 206 170 121
-0.029657 -0.200067 0.833031 255 223 156
0.008151 -0.414030 0.777315 244 204 165
-0.277132 -0.107336 -2.006899 219 223 230
0.287597 0.061272 0.050850 157 97 0
0.015789 -0.418909 0.781370 239 202 164
-0.245497 0.276899 -1.355001 12 21 44
0.233268 0.085158 0.083229 154 92 26
0.067055 -0.423137 0.792794 127 81 33
0.103580 0.271268 -0.925755 177 137 65
0.227315 0.082991 0.122738 251 196 117
0.076545 -0.428204 0.804124 254 221 182
-0.051258 0.062475 -0.931469 113 74 0
0.315063 -0.227734 0.115041 143 80 3
0.041130 -0.421167 0.818498 247 210 185
0.258642 -0.349782 0.364087 198 149 47
0.090980 -0.430633 0.888492 34 10 0
-0.029455 -0.358531 0.179267 248 208 140
0.296864 -0.097911 0.373807 183 129 2
0.080867 -0.438561 0.855166 162 122 82
0.029983 -0.421900 0.851172 225 179 147
-0.078183 0.034060 0.218810 167 105 0
0.314719 -0.177791 0.359019 204 163 48
0.062873 -0.431266 0.846605 149 108 69
-0.147865 -0.156701 0.146151 146 91 0
0.286854 -0.308297 0.340804 167 101 12
0.104985 -0.427706 0.848001 91 54 17
-0.020634 0.074763 0.142463 162 105 0
0.246872 -0.360326 0.336283 148 78 11
0.116335 -0.423963 0.848727 212 179 159
-0.086701 0.028806 0.017791 240 190 116
0.316767 -0.275648 0.314726 142 81 4
-0.003584 -0.415664 0.851272 254 226 189
-0.106718 -0.226123 -0.057235 253 217 139
0.076317 -0.434934 0.840751 226 189 150
-0.105157 -0.214977 -0.107118 95 47 0
0.157486 0.079364 0.280674 224 170 99
0.006904 -0.415982 0.848628 245 204 176
0.242861 0.046113 0.228034 203 152 56
-0.001712 -0.412332 0.847991 165 125 91
0.152518 0.173662 -0.132917 234 200 140
0.296365 -0.024424 0.198541 151 97 8
0.041781 -0.423015 0.842207 112 62 26
-0.094854 -0.113128 -0.319034 234 192 123
0.326046 -0.066514 0.181745 185 134 20
0.061965 -0.427413 0.833885 85 36 6
0.059716 0.233060 -0.665094 136 97 0
0.220462 0.073377 0.151152 193 134 71
-0.014411 -0.406017 0.839913 249 212 177
0.053522 0.246046 -0.766540 113 66 0
0.327548 0.075741 -0.192536 131 79 7
0.083021 -0.445418 0.455809 135 95 64
0.060143 0.120746 0.074903 139 89 0
0.235241 0.152340 -0.191152 131 81 0
0.005628 -0.437688 0.419414 178 129 61
-0.111989 -0.037024 -0.049837 73 0 0
0.371672 -0.101401 -0.232322 156 101 18
0.108273 -0.438386 0.367384 159 116 96
0.009401 0.125067 -0.001416 255 218 141
-0.060559 -0.383365 0.361523 165 111 5
0.023748 0.140055 -0.051845 240 193 123
0.327367 0.091301 -0.237635 165 113 20
0.189400 -0.383049 0.248411 152 108 14
-0.094979 -0.174623 -0.244661 112 70 1
0.316794 0.123543 -0.313310 114 66 2
-0.123529 -0.288532 0.270360 148 88 17
0.047605 0.180720 -0.274594 241 192 101
0.262721 -0.247774 -0.394609 146 97 3
-0.041291 -0.361729 0.221966 152 102 2
0.024102 0.174851 -0.300873 96 34 0
0.374063 -0.081008 -0.385237 132 74 11
-0.074609 -0.329586 0.202169 178 122 36
0.052276 0.199214 -0.333964 243 199 91
0.390530 0.012645 -0.398520 147 99 1
0.009241 -0.379035 0.180237 156 95 2
0.052276 0.199214 -0.333964 243 199 91
0.305285 -0.121041 0.313121 126 55 0
0.259852 0.191618 -0.404095 201 151 102
0.098342 -0.382678 0.126117 167 121 19
0.048141 0.196771 -0.358637 233 190 114
-0.087485 -0.347896 0.272395 131 83 2
0.382996 0.102546 -0.570107 146 96 8
-0.010237 -0.346208 0.099219 74 15 0
0.371088 -0.108322 -0.717271 102 38 0
-0.122596 -0.258712 0.055655 152 98 1
-0.032034 0.135242 -0.563579 203 159 75
0.395302 -0.057485 -0.747024 185 131 73
0.063357 -0.356711 -0.035554 143 99 37
-0.028364 -0.144708 -0.655777 231 194 87
0.236794 -0.217831 -0.798430 31 16 2
-0.078106 -0.262762 -0.030450 228 168 101
-0.074167 -0.033753 -0.654880 214 181 116
0.381268 -0.105725 -0.911428 162 119 71
0.244858 -0.313910 -0.044861 247 198 123
0.061973 0.239101 -0.636768 226 191 94
0.324307 -0.163271 -1.015076 26 14 8
-0.031122 -0.316086 -0.062671 143 85 2
-0.025714 0.149496 -0.692228 230 188 101
0.170027 0.552832 -1.236089 23 32 50
-0.029339 -0.309428 -0.073963 188 122 54
-0.033017 -0.108631 -0.808932 83 31 0
0.182086 0.544806 -1.240006 52 88 142
-0.019204 -0.311415 -0.077392 188 125 5
0.096624 0.250293 -0.716603 112 70 0
-0.058543 -0.293081 -0.077746 206 146 96
0.016165 0.210027 -0.749570 225 180 92
0.473886 -0.213533 -1.338689 19 55 119
0.047659 -0.319248 -0.135345 186 140 40
-0.070415 0.035918 -0.838014 191 146 73
0.309412 0.570800 -1.257620 14 23 51
-0.100746 -0.223955 -0.110428 203 151 80
0.141773 0.276936 -0.907651 70 22 0
0.486412 -0.153103 -1.329802 100 162 232
-0.100410 -0.221339 -0.115567 148 95 11
0.209297 0.280518 -0.923455 122 88 42
0.308312 0.543760 -1.264980 4 46 108
-0.037589 -0.284279 -0.163009 189 133 67
0.324919 0.579608 -1.261879 118 145 188
-0.012046 -0.298681 -0.182865 156 111 30
0.180949 0.028517 -1.139612 55 61 75
0.313652 0.587393 -1.265844 160 186 214
-0.085598 -0.189574 -0.270477 136 87 6
0.174703 0.161460 -1.121342 14 13 13
0.448163 0.478022 -1.262850 94 148 216
0.168993 -0.290325 -0.341374 158 115 25
-0.216047 -0.015979 -1.737231 31 49 95
-0.042202 -0.208823 -0.331870 206 158 87
0.548826 0.383822 -1.279502 101 152 217
0.193239 -0.288403 -0.358458 148 102 25
-0.034604 -0.270257 -2.031504 144 160 175
0.366624 -0.105371 -0.217382 197 153 56
0.595408 0.502681 -1.617033 16 63 130
0.109531 -0.289410 -0.369078 175 118 50
-0.334218 -0.062335 -2.007864 63 82 128
-0.055958 -0.196192 -0.319616 123 73 19
-0.083317 -0.067251 0.573841 125 30 0
0.394313 -0.078758 -0.756599 204 152 82
0.177817 -0.287583 -0.362916 147 107 10
0.350470 0.214062 -0.793244 82 29 0
0.178043 -0.287611 -0.362650 147 107 10
-0.123180 -0.289355 0.170510 133 64 7
0.380031 -0.127575 -0.846833 222 177 90
-0.073615 -0.172289 -0.343848 158 118 18
-0.126475 -0.085077 0.184270 71 0 0
0.408422 0.131791 -0.843861 118 70 32
0.050069 -0.261267 -0.365276 231 185 107
-0.122972 -0.086226 0.185908 71 0 0
-0.014380 -0.233214 -0.426015 139 91 10
0.367619 0.213393 -0.878440 98 58 0
0.203370 -0.273077 -0.435916 206 153 99
0.294606 -0.157274 -0.997380 25 3 2
0.122152 -0.242137 -0.615468 180 127 60
-0.052607 0.112833 -0.442507 61 12 4
0.179329 0.549588 -1.236913 148 166 197
0.353665 -0.234421 -1.340074 19 75 146
0.004551 -0.160611 -0.760918 220 174 95
0.470299 -0.216598 -1.334097 116 134 180
0.317005 -0.195852 -0.888487 166 112 76
-0.226679 0.074023 -1.332869 102 162 217
0.311697 0.555762 -1.262515 117 144 193
0.332780 -0.199353 -0.894722 239 204 175
-0.252702 0.269778 -1.359157 39 50 76
0.272513 -0.176976 -0.957741 171 129 100
0.390403 -0.553233 -2.061883 128 159 179
0.447469 0.484092 -1.245313 2 34 100
0.176536 -0.181825 -0.987042 176 140 113
0.113834 0.256889 -0.925226 142 102 16
0.153187 0.091692 -1.144134 42 43 52
0.009660 -0.028096 -1.047998 80 65 49
0.581703 -0.134668 -1.320789 117 160 209
-0.177796 0.105455 -1.321346 10 67 145
-0.884757 0.204452 -2.012120 82 134 195
0.543094 0.403080 -1.272504 97 149 215
-0.187406 -0.031945 -1.349598 0 57 136
0.413417 -0.315122 -1.473062 70 91 103
0.357703 -0.240982 -1.346825 100 154 224
-0.371006 0.497492 -1.924270 227 224 224
0.550065 -0.298050 -1.987996 150 173 190
0.430456 -0.258695 -1.348416 113 164 226
-0.515088 0.531565 -1.928257 227 222 224
0.474758 0.709746 -1.805249 164 184 202
-0.147487 -0.118502 -1.367195 75 146 218
0.112479 0.005761 0.471543 219 166 59
0.454639 0.755079 -1.803993 211 216 227
0.392086 -0.290892 -1.377412 40 55 90
0.184723 -0.242150 0.835663 255 235 169
-0.057023 -0.234779 -1.409110 28 57 101
-0.485038 -0.063073 -2.016045 27 99 177
0.206218 -0.231762 0.821603 233 193 113
-0.165151 -0.169375 -1.424069 47 48 54
0.566919 0.738301 -1.824193 192 185 183
0.241714 -0.254238 0.758245 189 113 0
-0.051988 -0.240263 -1.421563 137 162 201
-0.509630 0.474030 -1.929579 225 222 221
0.227531 -0.395776 0.590667 121 62 0
-0.054471 -0.241145 -1.426930 1 23 58
0.073054 -0.257003 -0.714247 15 15 15
0.085429 -0.002452 0.591729 165 113 0
0.261228 -0.347992 0.494816 166 116 5
0.295762 -0.300767 0.461443 156 109 4
0.082968 -0.438757 0.845377 251 221 181
0.060000 0.046260 0.278235 145 79 2
0.290173 -0.223658 0.417210 172 116 13
0.099721 -0.423197 0.845999 255 238 207
0.063393 -0.295287 -0.193250 0 0 0
0.305757 -0.222910 0.372074 232 182 105
-0.016186 -0.405256 0.846410 90 49 7
0.277057 0.472907 -1.251764 48 114 189
0.244532 -0.021940 0.381225 192 143 31
-0.001941 -0.411603 0.838573 255 221 192
0.101581 0.118265 -0.332634 137 83 0
0.129690 0.044989 0.395745 181 138 30
-0.025947 -0.395255 0.842766 87 36 0
0.178122 0.063588 0.310629 167 111 0
0.058911 -0.426576 0.824840 234 195 171
-0.127184 -0.123581 0.492543 201 148 13
0.193386 -0.385210 0.266123 112 63 0
0.040694 -0.420724 0.826703 73 20 0
-0.010666 -0.314136 -1.994094 108 138 159
0.322609 -0.133373 0.244066 144 92 0
0.075650 -0.425755 0.821220 249 213 176
-0.149609 -0.584368 -2.091326 211 219 233
0.185989 0.071018 0.269720 149 97 0
0.054919 -0.422513 0.814779 76 31 2
-0.135579 -0.587872 -2.097280 152 155 163
0.292010 -0.028299 0.226191 255 217 153
0.079431 -0.426017 0.812890 115 72 25
-0.074851 0.018589 -0.691739 245 215 111
0.237300 0.045479 0.235310 126 69 0
0.019125 -0.418575 0.812908 227 182 157
-0.090490 0.021724 -0.405379 83 22 0
0.314335 -0.224999 0.098424 166 115 1
0.244896 -0.320278 0.089263 88 27 0
0.095851 -0.428406 0.805512 255 236 203
0.261481 -0.309692 0.074062 156 118 25
0.111442 -0.450399 0.726133 148 117 85
-0.041790 0.073002 0.147715 231 179 92
0.198983 -0.349566 0.062951 243 199 107
0.185511 -0.418075 0.710530 248 219 196
0.286947 0.624392 -1.936646 27 73 110
0.258199 -0.312946 0.056364 246 206 126
0.047482 -0.466593 0.667792 123 77 27
-0.061246 -0.065948 -0.760960 228 185 104
0.345470 -0.141667 0.055105 165 120 20
0.147215 -0.451451 0.665237 246 208 182
0.347933 -0.019417 -0.004387 172 122 14
0.169399 -0.437133 0.634741 242 215 198
0.129477 0.309118 -0.849323 18 11 8
0.244842 0.100800 0.008264 110 50 0
-0.015105 -0.455234 0.612670 218 179 78
0.089970 -0.073517 -1.338122 37 83 155
0.187151 0.136578 -0.006664 143 85 0
0.131581 -0.448954 0.578703 96 50 13
-0.006624 -0.261681 0.937820 252 209 169
0.359200 -0.126195 -0.051999 251 193 111
-0.072687 -0.414019 0.584050 252 216 127
0.000919 -0.246470 0.933295 246 196 129
0.327620 -0.217497 -0.106794 143 93 0
0.170099 -0.435336 0.520198 123 92 67
-0.033144 -0.375322 0.894299 43 12 7
-0.083897 -0.393660 0.516746 216 171 38
-0.035146 -0.249477 0.898536 255 227 175
0.329046 0.061453 -0.170458 160 110 9
0.079776 -0.452486 0.477101 101 45 4
-0.018781 -0.228179 0.892266 255 227 175
0.234945 0.161735 -0.186798 90 27 0
0.073212 -0.443850 0.453868 142 105 56
-0.061757 -0.311599 0.856646 119 68 29
0.134065 -0.429577 0.441120 97 27 0
-0.061684 -0.315581 0.836091 183 143 82
0.381210 -0.081758 -0.300950 227 185 118
-0.018846 -0.428312 0.413144 176 124 33
-0.008002 -0.196383 0.863683 154 101 34
0.293662 0.152840 -0.285178 120 79 0
0.127098 -0.430035 0.364289 71 18 0
0.050962 -0.191904 0.881098 107 64 3
0.104435 0.205474 -0.292222 170 153 130
0.187573 -0.410424 0.333483 169 119 5
-0.010681 -0.189367 0.836100 227 193 125
0.225945 0.198550 -0.349926 129 87 5
0.001549 -0.398059 0.261167 157 103 47
-0.059742 -0.178547 0.786980 255 226 130
0.331513 0.152614 -0.389759 146 96 6
0.217422 -0.345200 0.128492 150 108 5
0.021952 -0.103706 0.820172 25 10 0
0.258595 0.212694 -0.533306 92 38 0
-0.002551 -0.353402 0.096408 238 194 126
-0.113046 -0.319144 0.728755 251 215 160
0.263736 0.215919 -0.540433 220 176 115
-0.028373 -0.321187 -0.021040 129 73 0
-0.026451 -0.007316 0.524847 172 121 11
0.372962 -0.111284 -0.581479 222 179 116
0.231549 -0.322458 -0.018837 111 54 0
0.339648 -0.152512 -0.789148 119 61 0
-0.107067 -0.234479 -0.057612 239 191 103
-0.156236 -0.146556 0.352796 198 147 8
0.319672 -0.191271 -0.892731 95 52 28
-0.110014 -0.228275 -0.064687 137 89 0
-0.080759 0.024528 0.241484 182 135 29
0.318713 -0.182163 -0.907272 126 89 59
0.152244 -0.333010 -0.166484 152 91 0
-0.059641 0.059383 0.197694 167 122 6
0.250105 0.274552 -0.861737 160 120 73
0.065155 -0.319543 -0.190122 236 187 119
-0.087003 0.049447 0.188195 137 82 2
0.269019 -0.170230 -0.980911 110 84 52
0.231150 -0.267554 -0.298473 233 193 138
-0.102714 0.007134 0.148221 189 140 18
0.331191 -0.119156 -0.994956 78 44 3
0.120401 -0.292541 -0.332626 142 91 0
-0.142819 -0.158988 0.074864 84 20 1
0.609516 0.162818 -1.257424 126 178 242
-0.070491 -0.190500 -0.317299 165 122 60
-0.113739 -0.242410 0.003676 216 169 102
0.533805 0.420488 -1.261561 10 55 130
-0.075406 -0.168338 -0.325365 97 47 0
0.276838 -0.235314 -0.408499 110 60 1
0.039472 0.126254 0.041502 216 169 96
0.653339 -0.531704 -2.019381 217 224 233
0.279434 -0.237411 -0.417732 234 186 120
-0.103163 -0.230705 -0.071685 228 179 113
0.048826 -0.232081 0.938824 247 218 155
0.279434 -0.237411 -0.417732 234 186 120
0.098613 0.154679 -0.038873 193 143 54
0.173363 -0.228252 0.860088 191 148 72
0.225292 -0.259322 -0.469938 102 49 0
0.016404 0.151697 -0.219985 80 18 0
0.141553 -0.186430 0.849458 255 233 172
0.204082 -0.259817 -0.480927 137 89 29
0.190993 -0.320546 0.827451 253 218 161
0.068346 -0.162720 0.853363 254 224 162
0.262167 -0.200505 -0.618728 203 164 111
0.081538 0.206783 -0.338221 190 142 44
0.114744 -0.108210 0.789734 255 226 98
0.057857 -0.145021 -0.996299 106 65 8
0.104003 -0.094921 0.786671 170 109 0
0.257889 -0.162356 -1.014147 144 113 89
0.109557 -0.008772 0.592443 175 122 5
0.364250 -0.297784 -1.364997 104 156 215
-0.044840 -0.200499 -1.373942 16 86 161
0.304803 -0.148795 0.423844 255 232 166
0.066466 -0.305527 -1.373881 122 173 230
-0.168702 -0.108819 -1.372378 81 135 191
0.194585 0.036758 0.352555 255 212 121
-0.060780 -0.234642 -1.414178 117 144 185
0.086963 0.516008 -1.230376 2 49 120
0.253492 -0.332408 0.251102 255 212 124
-0.045098 -0.243956 -1.416267 28 58 108
0.089991 0.515071 -1.231101 2 49 120
0.276663 -0.020057 0.265411 83 8 0
-0.110087 -0.292172 -2.032280 154 181 196
-0.252563 0.062935 -1.626012 152 155 171
0.212783 0.072575 0.194826 91 18 0
0.044249 -0.396326 0.899552 39 10 0
-0.015083 0.616938 -1.862035 19 66 104
0.288149 0.004798 0.179810 91 11 0
0.084489 -0.426520 0.840477 101 59 15
-0.068204 -0.333926 0.844377 254 221 191
0.284248 0.003899 0.180291 91 11 0
0.084661 -0.428584 0.840186 101 59 15
-0.049188 -0.244593 0.852945 140 91 35
0.274307 -0.293855 0.149236 103 49 0
0.184294 0.102478 0.175454 255 215 121
0.035861 -0.417524 0.798743 136 100 60
-0.023964 -0.157031 0.817369 226 188 110
0.189236 0.105175 0.101435 222 170 96
0.035995 -0.418556 0.798357 136 100 60
0.204028 0.107774 0.072109 98 28 0
0.005921 -0.416676 0.797605 255 234 199
0.204341 0.108087 0.073343 98 28 0
0.188557 0.116103 0.068684 253 208 117
0.052622 -0.417592 0.796058 95 51 5
-0.062949 -0.074127 0.680346 211 176 47
0.331226 -0.062855 0.038310 255 223 119
0.072265 -0.427722 0.787751 92 43 0
0.284065 -0.274726 0.008534 254 207 131
0.033802 -0.417952 0.787671 255 235 204
-0.046354 -0.013572 0.481605 170 125 9
0.327903 -0.008149 0.027692 219 166 70
0.134725 -0.454288 0.671897 250 213 177
-0.157696 -0.162089 0.373790 244 186 102
0.229137 0.097040 0.026322 136 82 0
0.156982 -0.440685 0.635798 250 229 212
-0.139907 -0.279783 0.334060 166 115 0
0.188650 0.122573 0.029552 245 195 120
-0.080614 -0.407741 0.637539 197 159 13
-0.019895 0.033600 0.352737 252 202 131
0.287572 -0.264475 -0.028514 252 206 135
0.124824 -0.452199 0.604819 255 217 167
-0.138367 -0.102028 0.297202 79 5 0
0.202139 0.120981 0.000649 255 213 130
0.156465 -0.443191 0.606462 111 66 26
-0.114846 -0.258022 0.085764 238 182 113
0.251491 -0.300214 -0.048319 107 57 0
0.018825 -0.424198 0.542153 98 30 0
0.023284 0.106274 0.120714 217 165 108
0.247382 -0.295604 -0.088513 127 84 0
0.081377 -0.450104 0.500993 159 112 54
0.098984 0.122118 0.112715 96 35 0
0.235352 0.133043 -0.064969 104 44 0
0.001404 -0.427755 0.466802 221 168 45
-0.017008 0.090665 0.056895 208 156 103
0.228440 0.131799 -0.065403 104 44 0
0.085742 -0.447912 0.415384 255 234 203
0.034993 0.125337 0.046166 102 53 0
0.249857 0.134767 -0.129060 137 88 0
0.113087 -0.432706 0.361862 78 33 0
-0.024990 0.095136 0.003763 170 126 30
0.305334 -0.236118 -0.185877 251 203 136
0.135804 -0.416961 0.325302 158 108 0
-0.119061 -0.042025 -0.350077 209 161 98
0.206174 0.162642 -0.157921 253 211 149
-0.066549 -0.373571 0.339709 181 138 10
-0.055493 0.099553 -0.366876 194 148 93
0.289643 -0.255279 -0.256656 235 200 138
0.098888 -0.426732 0.319924 154 103 3
-0.007820 0.190315 -0.690580 139 91 24
0.220427 0.169649 -0.236107 252 211 132
-0.011618 -0.388218 0.254699 145 91 0
0.047446 0.245285 -0.844411 207 164 115
0.371388 0.024855 -0.251023 144 91 0
0.109117 -0.383231 0.123180 134 85 0
0.027334 0.229774 -0.885363 104 58 0
0.378076 -0.070102 -0.337777 224 183 101
0.262684 -0.282271 -0.163619 136 85 8
0.103221 0.259479 -0.977380 91 53 0
